ply
format ascii 1.0
element vertex 1216
property float x
property float y
property float z
property uchar red
property uchar green
property uchar blue
end_header
0.603774 -0.662474 -5.366876 39 43 47
0.621849 -0.663866 -5.378151 42 42 46
0.637317 -0.662474 -5.366876 53 45 48
0.654774 -0.663169 -5.372508 111 95 95
0.718294 -0.709315 -5.746352 164 143 141
0.745011 -0.700665 -5.676275 133 117 115
0.743784 -0.683243 -5.535135 85 74 73
0.752941 -0.675936 -5.475936 38 31 31
0.761099 -0.668076 -5.412262 24 21 22
0.767466 -0.659020 -5.338895 23 23 24
0.780083 -0.655602 -5.311203 23 23 27
0.796681 -0.655602 -5.311203 23 23 27
0.825263 -0.665263 -5.389474 24 24 27
0.835946 -0.660397 -5.350052 24 24 28
0.827586 -0.640974 -5.192698 24 24 29
0.843813 -0.640974 -5.192698 24 25 30
0.827317 -0.616585 -4.995122 27 29 36
0.842927 -0.616585 -4.995122 34 36 45
0.833333 -0.598485 -4.848485 52 55 65
0.848485 -0.598485 -4.848485 100 100 108
0.863636 -0.598485 -4.848485 112 111 117
0.877127 -0.597354 -4.839320 113 111 117
0.879776 -0.589003 -4.771668 114 112 118
0.894688 -0.589003 -4.771668 114 112 117
0.938462 -0.607692 -4.923077 113 112 116
0.962173 -0.612997 -4.966053 113 114 116
1.080386 -0.677385 -5.487674 114 115 117
1.126513 -0.695270 -5.632563 117 116 121
1.144114 -0.695270 -5.632563 121 120 127
1.146580 -0.686211 -5.559175 127 126 134
1.147752 -0.676660 -5.481799 130 129 137
1.148891 -0.667371 -5.406547 131 129 135
1.154812 -0.661088 -5.355649 132 130 134
1.153450 -0.650875 -5.272914 133 130 134
1.147475 -0.638384 -5.171717 135 130 134
1.153153 -0.632633 -5.125125 135 129 134
1.161034 -0.628231 -5.089463 133 128 132
1.233333 -0.658333 -5.333333 133 127 131
1.190476 -0.626984 -5.079365 127 121 125
1.150426 -0.597919 -4.843898 86 81 84
1.149254 -0.589552 -4.776119 35 31 35
1.150230 -0.582488 -4.718894 36 34 39
1.164977 -0.582488 -4.718894 77 77 82
1.371919 -0.677385 -5.487674 132 133 142
1.384615 -0.675214 -5.470086 142 144 154
1.397231 -0.673056 -5.452609 139 141 150
1.411265 -0.671626 -5.441020 165 166 175
1.428268 -0.671626 -5.441020 209 210 219
1.443737 -0.670913 -5.435244 217 218 229
1.454545 -0.668076 -5.412262 188 189 200
1.466807 -0.665964 -5.395153 139 141 153
1.480547 -0.664564 -5.383807 87 91 107
1.497371 -0.664564 -5.383807 68 73 94
1.466395 -0.643585 -5.213849 96 103 128
1.421875 -0.617188 -5.000000 100 107 133
1.437500 -0.617188 -5.000000 63 71 93
1.453125 -0.617188 -5.000000 24 32 49
1.454545 -0.611219 -4.951644 24 31 46
1.470019 -0.611219 -4.951644 25 30 46
1.610063 -0.662474 -5.366876 26 34 47
1.625131 -0.661780 -5.361257 28 39 55
1.641885 -0.661780 -5.361257 33 47 72
1.658639 -0.661780 -5.361257 34 51 80
1.685985 -0.665964 -5.395153 33 53 80
1.752712 -0.685466 -5.553145 33 55 77
1.770065 -0.685466 -5.553145 32 55 76
1.773950 -0.680301 -5.511302 32 55 75
1.781585 -0.676660 -5.481799 33 52 73
1.787234 -0.672340 -5.446808 32 49 71
1.796610 -0.669492 -5.423729 35 51 72
1.811640 -0.668783 -5.417989 39 54 75
1.826638 -0.668076 -5.412262 40 56 76
1.843552 -0.668076 -5.412262 42 59 80
1.856540 -0.666667 -5.400844 42 61 83
1.873418 -0.666667 -5.400844 41 61 83
1.890295 -0.666667 -5.400844 41 63 84
1.927505 -0.673774 -5.458422 42 64 84
1.944563 -0.673774 -5.458422 42 63 81
1.947090 -0.668783 -5.417989 42 63 77
1.953684 -0.665263 -5.389474 41 60 72
1.923946 -0.649538 -5.262076 35 51 65
1.940391 -0.649538 -5.262076 57 70 91
2.008439 -0.666667 -5.400844 99 109 136
2.027455 -0.667371 -5.406547 106 116 142
2.044351 -0.667371 -5.406547 86 96 124
2.061246 -0.667371 -5.406547 101 112 144
2.084746 -0.669492 -5.423729 172 183 209
2.095037 -0.667371 -5.406547 161 172 200
2.111933 -0.667371 -5.406547 128 139 172
2.122105 -0.665263 -5.389474 151 163 193
1.994112 -0.620216 -5.024534 120 132 165
1.996101 -0.615984 -4.990253 97 110 143
2.005831 -0.614189 -4.975705 162 177 207
2.017459 -0.612997 -4.966053 166 182 213
2.215645 -0.668076 -5.412262 155 173 203
2.237288 -0.669492 -5.423729 145 163 194
2.249471 -0.668076 -5.412262 76 94 124
2.263992 -0.667371 -5.406547 113 130 159
2.271293 -0.664564 -5.383807 146 162 192
2.288118 -0.664564 -5.383807 114 128 160
2.307369 -0.665263 -5.389474 98 111 145
2.324211 -0.665263 -5.389474 88 101 135
2.326360 -0.661088 -5.355649 141 155 189
2.309278 -0.651546 -5.278350 127 141 174
2.318602 -0.649538 -5.262076 92 104 137
2.359294 -0.656282 -5.316719 114 125 158
2.383333 -0.658333 -5.333333 120 129 164
2.400000 -0.658333 -5.333333 68 74 97
2.411642 -0.656965 -5.322245 17 20 33
2.430801 -0.657648 -5.327784 15 16 23
2.457680 -0.660397 -5.350052 17 17 20
2.479581 -0.661780 -5.361257 18 18 20
2.496335 -0.661780 -5.361257 16 16 20
2.513089 -0.661780 -5.361257 15 15 21
2.545838 -0.665964 -5.395153 16 15 22
2.560000 -0.665263 -5.389474 16 15 22
2.566038 -0.662474 -5.366876 15 15 21
2.572025 -0.659708 -5.344468 16 16 21
2.577963 -0.656965 -5.322245 16 16 20
2.589212 -0.655602 -5.311203 16 16 19
2.573771 -0.647541 -5.245902 17 17 19
2.590164 -0.647541 -5.245902 17 17 20
2.603889 -0.646878 -5.240532 18 17 21
2.612245 -0.644898 -5.224490 27 27 28
2.623218 -0.643585 -5.213849 35 35 35
2.639511 -0.643585 -5.213849 52 51 52
2.762712 -0.669492 -5.423729 83 80 79
2.779661 -0.669492 -5.423729 87 83 77
2.790698 -0.668076 -5.412262 90 86 72
2.786988 -0.663169 -5.372508 93 90 67
2.797906 -0.661780 -5.361257 96 92 64
2.847458 -0.669492 -5.423729 97 92 66
2.864407 -0.669492 -5.423729 97 90 68
2.863158 -0.665263 -5.389474 97 89 71
2.876972 -0.664564 -5.383807 96 88 72
4.940754 -1.134650 -9.192101 96 89 72
5.648980 -1.289796 -10.448979 95 91 71
5.681633 -1.289796 -10.448979 95 91 71
5.633803 -1.271630 -10.301811 95 90 70
5.576238 -1.251485 -10.138614 95 90 69
5.574803 -1.244094 -10.078740 94 90 69
5.498069 -1.220077 -9.884170 93 89 68
5.476099 -1.208413 -9.789675 92 88 67
5.313653 -1.166052 -9.446494 90 88 66
4.206897 -0.908046 -7.356322 91 89 67
3.138593 -0.673774 -5.458422 91 90 70
3.145590 -0.671626 -5.441020 90 88 69
3.162593 -0.671626 -5.441020 91 88 69
3.162791 -0.668076 -5.412262 92 88 69
3.146444 -0.661088 -5.355649 93 88 70
3.206787 -0.670201 -5.429481 93 87 69
3.216931 -0.668783 -5.417989 93 88 69
3.233862 -0.668783 -5.417989 93 89 69
3.230284 -0.664564 -5.383807 96 91 72
3.240294 -0.663169 -5.372508 97 90 73
3.267368 -0.665263 -5.389474 95 90 72
3.270440 -0.662474 -5.366876 92 89 70
3.249741 -0.654922 -5.305699 89 89 69
3.216326 -0.644898 -5.224490 82 84 67
3.196771 -0.637740 -5.166499 48 51 42
3.146245 -0.624506 -5.059289 30 34 32
-3.295572 -0.667353 -5.272914 62 87 84
-3.316667 -0.675000 -5.333333 59 84 80
-3.303441 -0.675704 -5.338895 54 80 75
-3.286757 -0.675704 -5.338895 53 75 69
-3.200000 -0.661224 -5.224490 38 54 50
-3.089109 -0.641584 -5.069307 20 29 26
-3.052114 -0.637168 -5.034415 16 22 20
-2.977821 -0.624879 -4.937319 17 21 20
-2.881801 -0.607880 -4.803002 17 18 20
-2.848089 -0.603914 -4.771668 20 23 24
-2.820037 -0.601113 -4.749536 26 30 33
-2.784530 -0.596685 -4.714549 26 30 33
-2.759633 -0.594495 -4.697248 23 28 31
-2.750000 -0.595588 -4.705883 23 26 29
-2.768372 -0.602791 -4.762791 23 24 27
-2.784572 -0.609595 -4.816557 26 26 28
-12.912281 -2.842105 -22.456141 31 31 33
-12.842105 -2.842105 -22.456141 31 33 34
-12.716157 -2.829694 -22.358078 30 32 31
-12.323404 -2.757447 -21.787233 30 34 31
-12.100841 -2.722689 -21.512606 30 34 31
-12.033613 -2.722689 -21.512606 35 38 38
-11.966387 -2.722689 -21.512606 33 34 37
-11.800000 -2.700000 -21.333334 29 30 35
-10.277372 -2.364964 -18.686131 29 31 36
-7.407407 -1.714286 -13.544973 33 35 38
-7.083970 -1.648855 -13.027989 37 38 39
-7.043257 -1.648855 -13.027989 24 26 24
-6.984772 -1.644670 -12.994924 16 17 15
-7.125000 -1.687500 -13.333333 15 15 15
-7.046632 -1.678756 -13.264249 14 14 16
-7.005181 -1.678756 -13.264249 16 15 20
-6.963730 -1.678756 -13.264249 18 18 23
-6.696742 -1.624060 -12.832080 18 18 23
-6.656641 -1.624060 -12.832080 16 17 21
-6.600000 -1.620000 -12.800000 14 15 19
-6.560000 -1.620000 -12.800000 14 15 19
-6.520000 -1.620000 -12.800000 14 15 18
-4.881356 -1.220339 -9.642184 15 16 18
-4.770370 -1.200000 -9.481482 17 19 19
-4.723247 -1.195572 -9.446494 20 20 19
-4.633880 -1.180328 -9.326047 21 21 21
-4.514286 -1.157143 -9.142858 22 22 24
-3.829268 -0.987805 -7.804878 24 23 28
-3.770393 -0.978852 -7.734139 28 27 32
-3.657817 -0.955752 -7.551622 35 34 39
-3.581395 -0.941860 -7.441861 45 44 48
-3.558140 -0.941860 -7.441861 41 41 43
-3.534884 -0.941860 -7.441861 32 33 33
-3.461318 -0.928367 -7.335244 36 35 40
-3.204272 -0.865154 -6.835781 40 37 48
-3.124509 -0.849279 -6.710354 42 39 47
-2.923457 -0.800000 -6.320988 42 41 44
-2.847458 -0.784504 -6.198547 43 42 46
-2.774347 -0.769596 -6.080760 45 42 47
-2.707118 -0.756126 -5.974329 45 42 42
-2.636156 -0.741419 -5.858124 48 41 39
-2.570786 -0.728090 -5.752809 67 33 38
-2.510497 -0.716022 -5.657459 90 31 39
-2.444204 -0.702058 -5.547129 107 31 39
-2.388060 -0.690832 -5.458422 125 27 37
-2.368477 -0.690096 -5.452609 113 12 19
-2.324211 -0.682105 -5.389474 107 10 14
-2.324496 -0.687169 -5.429481 111 11 17
-2.307529 -0.687169 -5.429481 119 8 19
-2.288136 -0.686441 -5.423729 139 13 28
-2.247380 -0.679245 -5.366876 158 15 33
-2.221294 -0.676409 -5.344468 169 11 30
-2.028818 -0.622478 -4.918348 179 14 32
-2.003824 -0.619503 -4.894837 184 19 35
-1.947566 -0.606742 -4.794007 185 20 36
-1.932584 -0.606742 -4.794007 181 16 33
-1.912232 -0.605042 -4.780579 176 10 31
-1.888476 -0.602230 -4.758364 176 11 33
-1.861496 -0.598338 -4.727609 179 15 37
-1.838235 -0.595588 -4.705883 183 18 41
-1.823529 -0.595588 -4.705883 185 19 44
-2.024691 -0.666667 -5.267490 180 15 39
-2.008230 -0.666667 -5.267490 174 12 33
-1.916832 -0.641584 -5.069307 175 18 33
-1.792717 -0.605042 -4.780579 178 17 35
-1.762963 -0.600000 -4.740741 183 19 42
-1.748148 -0.600000 -4.740741 187 20 44
-1.736549 -0.601113 -4.749536 183 18 38
-1.721707 -0.601113 -4.749536 177 25 50
-1.694291 -0.596685 -4.714549 147 66 89
-1.678013 -0.596136 -4.710212 100 94 105
-1.931624 -0.692308 -5.470086 28 32 34
-1.902335 -0.687898 -5.435244 19 18 19
-1.885350 -0.687898 -5.435244 19 18 18
-1.864407 -0.686441 -5.423729 19 18 19
-1.841605 -0.684266 -5.406547 18 16 17
-1.813221 -0.679958 -5.372508 17 16 17
-1.796432 -0.679958 -5.372508 17 17 17
-1.779643 -0.679958 -5.372508 17 18 18
-1.783440 -0.687898 -5.435244 17 19 19
-1.785408 -0.695279 -5.493562 27 31 32
-1.770140 -0.696026 -5.499463 40 47 51
-1.741729 -0.691569 -5.464248 43 45 50
-1.724653 -0.691569 -5.464248 38 41 41
-1.687764 -0.683544 -5.400844 34 39 35
-1.527483 -0.624879 -4.937319 31 31 29
-1.512054 -0.624879 -4.937319 24 26 25
-1.590164 -0.663934 -5.245902 27 27 29
-1.621964 -0.684266 -5.406547 36 35 34
-1.596639 -0.680672 -5.378151 43 44 42
-1.537832 -0.662577 -5.235174 50 54 51
-1.460255 -0.635918 -5.024534 54 61 56
-1.447394 -0.637168 -5.034415 50 58 52
-1.428852 -0.635918 -5.024534 49 61 53
-1.406250 -0.632812 -5.000000 50 66 59
-1.390625 -0.632812 -5.000000 43 65 58
-1.375000 -0.632812 -5.000000 44 68 60
-1.347531 -0.627299 -4.956438 44 70 60
-1.323077 -0.623077 -4.923077 50 77 68
-1.295238 -0.617143 -4.876191 52 79 73
-1.276353 -0.615385 -4.862298 56 82 81
-1.264762 -0.617143 -4.876191 58 84 85
-1.231925 -0.608451 -4.807512 56 85 85
-1.206704 -0.603352 -4.767225 53 85 83
-1.182994 -0.598891 -4.731978 56 87 87
-1.163904 -0.596685 -4.714549 60 90 91
-1.147059 -0.595588 -4.705883 60 92 90
-1.117967 -0.588022 -4.646098 60 94 90
-1.095495 -0.583784 -4.612613 65 100 94
-1.114206 -0.601671 -4.753946 68 104 99
-1.099350 -0.601671 -4.753946 71 107 103
-1.088537 -0.603914 -4.771668 76 110 108
-1.074627 -0.604478 -4.776119 77 113 114
-1.083969 -0.618321 -4.885496 85 122 123
-1.094819 -0.633431 -5.004888 81 119 118
-1.095238 -0.642857 -5.079365 87 125 124
-1.079365 -0.642857 -5.079365 92 130 130
-1.063492 -0.642857 -5.079365 90 128 130
-1.100000 -0.675000 -5.333333 89 126 130
-1.083333 -0.675000 -5.333333 90 127 133
-0.989205 -0.635918 -5.024534 101 136 142
-0.973503 -0.635918 -5.024534 96 135 137
-0.933078 -0.619503 -4.894837 98 140 139
-0.917782 -0.619503 -4.894837 103 147 145
-0.895636 -0.614801 -4.857685 96 140 137
-0.880455 -0.614801 -4.857685 99 142 139
-0.860377 -0.611321 -4.830189 101 143 141
-0.838951 -0.606742 -4.794007 98 139 137
-0.819367 -0.603352 -4.767225 98 137 136
-0.794118 -0.595588 -4.705883 96 134 132
-0.777982 -0.594495 -4.697248 95 131 130
-0.776119 -0.604478 -4.776119 92 128 128
-0.765478 -0.607880 -4.803002 95 130 131
-0.746965 -0.605042 -4.780579 92 127 128
-0.732026 -0.605042 -4.780579 85 120 122
-0.720450 -0.607880 -4.803002 85 117 123
-0.705441 -0.607880 -4.803002 81 110 120
-0.688494 -0.606174 -4.789523 78 103 113
-0.673527 -0.606174 -4.789523 66 86 95
-3.087719 -2.842105 -22.456141 57 72 80
-3.071429 -2.892857 -22.857143 42 53 61
-2.947368 -2.842105 -22.456141 53 60 69
-2.839827 -2.805195 -22.164503 120 124 136
-2.819383 -2.854625 -22.555065 162 166 178
-2.713043 -2.817391 -22.260870 180 180 194
-2.543933 -2.711297 -21.422594 185 182 197
-2.476987 -2.711297 -21.422594 204 199 214
-2.400000 -2.700000 -21.333334 221 217 230
-0.830861 -0.961424 -7.596439 233 230 240
-0.791849 -0.943231 -7.452693 241 239 246
-0.768559 -0.943231 -7.452693 239 235 241
-0.936015 -1.184644 -9.360147 241 238 243
-0.937618 -1.224953 -9.678639 252 248 252
-0.837383 -1.211215 -9.570093 217 194 199
-0.795580 -1.193370 -9.429097 218 199 204
-0.763303 -1.188991 -9.394495 239 230 235
-0.727273 -1.178182 -9.309091 249 248 250
-0.688172 -1.161290 -9.175628 252 253 254
-0.399132 -0.702820 -5.553145 253 254 253
-0.377682 -0.695279 -5.493562 253 254 251
-0.359743 -0.693790 -5.481799 253 253 251
-0.341880 -0.692308 -5.470086 242 242 244
-0.322034 -0.686441 -5.423729 135 135 141
-0.301887 -0.679245 -5.366876 51 53 59
-0.283925 -0.676409 -5.344468 45 49 53
-0.266945 -0.675704 -5.338895 40 44 45
-0.222664 -0.644135 -5.089463 35 34 37
-0.203922 -0.635294 -5.019608 32 30 34
-0.185687 -0.626692 -4.951644 29 27 34
-0.168099 -0.618911 -4.890162 25 25 32
-0.151515 -0.613636 -4.848485 23 22 32
-0.136364 -0.613636 -4.848485 21 20 30
-0.132642 -0.671503 -5.305699 20 20 27
-0.117032 -0.677116 -5.350052 21 22 27
-0.100313 -0.677116 -5.350052 24 25 30
-0.153846 -1.246154 -9.846154 58 59 64
-0.122605 -1.241379 -9.808429 59 60 65
-0.091954 -1.241379 -9.808429 48 49 54
-0.059925 -1.213483 -9.588015 41 44 49
-0.029466 -1.193370 -9.429097 39 42 47
0.000000 -1.182482 -9.343065 38 41 47
0.028674 -1.161290 -9.175628 38 41 47
0.055268 -1.119171 -8.842833 38 41 48
0.069666 -0.940493 -7.431059 38 41 49
0.067797 -0.686441 -5.423729 39 43 52
0.079444 -0.643496 -5.084409 40 44 53
0.093842 -0.633431 -5.004888 41 45 54
0.109375 -0.632812 -5.000000 42 46 55
0.125000 -0.632812 -5.000000 44 48 58
0.151579 -0.682105 -5.389474 45 49 60
0.167364 -0.677824 -5.355649 47 51 63
0.184100 -0.677824 -5.355649 51 55 66
0.200000 -0.675000 -5.333333 52 56 68
0.214433 -0.668041 -5.278350 51 55 67
0.228805 -0.661900 -5.229826 47 51 62
0.241692 -0.652568 -5.156093 42 46 55
0.236380 -0.598338 -4.727609 39 43 52
0.274470 -0.653885 -5.166499 39 43 52
0.290616 -0.653885 -5.166499 40 44 53
0.306761 -0.653885 -5.166499 41 45 54
0.317146 -0.642220 -5.074331 40 44 53
0.333333 -0.642857 -5.079365 41 44 54
0.360656 -0.663934 -5.245902 41 43 55
0.377049 -0.663934 -5.245902 42 44 56
0.393443 -0.663934 -5.245902 42 45 55
0.398406 -0.645418 -5.099602 43 46 54
0.412698 -0.642857 -5.079365 44 47 53
0.424779 -0.637168 -5.034415 44 47 52
0.437500 -0.632812 -5.000000 43 46 51
0.451801 -0.630964 -4.985394 41 45 48
0.461983 -0.623677 -4.927815 40 43 48
0.469697 -0.613636 -4.848485 38 41 46
0.480300 -0.607880 -4.803002 38 41 46
0.493920 -0.606174 -4.789523 40 42 46
0.506047 -0.602791 -4.762791 43 44 46
0.520446 -0.602230 -4.758364 42 45 47
0.601881 -0.677116 -5.350052 41 45 48
0.621196 -0.679958 -5.372508 40 39 41
0.635319 -0.677116 -5.350052 86 75 75
0.651357 -0.676409 -5.344468 158 135 133
0.668058 -0.676409 -5.344468 157 128 123
0.731230 -0.705114 -5.571273 120 98 91
0.736617 -0.693790 -5.481799 100 84 76
0.744186 -0.684989 -5.412262 67 57 50
0.761099 -0.684989 -5.412262 34 29 25
0.767466 -0.675704 -5.338895 22 21 19
0.780083 -0.672199 -5.311203 20 20 21
0.794209 -0.670114 -5.294726 20 20 23
0.802456 -0.663255 -5.240532 21 20 24
0.804829 -0.651911 -5.150906 21 20 25
0.796875 -0.632812 -5.000000 21 21 26
0.812500 -0.632812 -5.000000 22 23 29
0.827317 -0.632195 -4.995122 25 26 35
0.842927 -0.632195 -4.995122 31 34 43
0.808081 -0.595041 -4.701561 47 50 61
0.822773 -0.595041 -4.701561 91 92 99
0.862004 -0.612476 -4.839320 109 108 114
0.865672 -0.604478 -4.776119 111 110 116
0.858963 -0.589627 -4.658781 111 109 115
0.873521 -0.589627 -4.658781 111 109 114
0.926876 -0.615385 -4.862298 112 110 114
1.020576 -0.666667 -5.267490 111 110 113
1.037037 -0.666667 -5.267490 111 111 113
1.097535 -0.694534 -5.487674 113 112 117
1.129207 -0.703583 -5.559175 117 116 122
1.142857 -0.701299 -5.541126 124 122 132
1.147752 -0.693790 -5.481799 129 127 137
1.148891 -0.684266 -5.406547 130 128 136
1.154812 -0.677824 -5.355649 131 129 134
1.153450 -0.667353 -5.272914 132 129 133
1.147475 -0.654545 -5.171717 134 129 134
1.145129 -0.644135 -5.089463 134 129 134
1.158730 -0.642857 -5.079365 133 127 132
1.148400 -0.628516 -4.966053 132 126 131
1.153846 -0.623077 -4.923077 126 120 124
1.150426 -0.613056 -4.843898 84 78 83
1.148183 -0.603914 -4.771668 34 30 35
1.152355 -0.598338 -4.727609 26 25 30
1.167128 -0.598338 -4.727609 42 41 46
1.367521 -0.692308 -5.470086 116 116 124
1.384615 -0.692308 -5.470086 128 128 137
1.394261 -0.688629 -5.441020 103 102 111
1.409766 -0.687898 -5.435244 169 168 175
1.426752 -0.687898 -5.435244 223 222 229
1.440678 -0.686441 -5.423729 206 205 213
1.449947 -0.682824 -5.395153 103 103 110
1.463722 -0.681388 -5.383807 67 68 75
1.480547 -0.681388 -5.383807 76 79 92
1.497371 -0.681388 -5.383807 103 107 127
1.495327 -0.672897 -5.316719 106 111 137
1.438735 -0.640316 -5.059289 100 107 133
1.454545 -0.640316 -5.059289 76 85 106
1.455969 -0.634051 -5.009785 30 38 54
1.471624 -0.634051 -5.009785 25 32 46
1.470019 -0.626692 -4.951644 26 32 46
1.508841 -0.636542 -5.029469 28 34 46
1.625131 -0.678534 -5.361257 29 38 53
1.641885 -0.678534 -5.361257 34 45 70
1.650000 -0.675000 -5.333333 36 51 79
1.666667 -0.675000 -5.333333 35 54 78
1.748918 -0.701299 -5.541126 35 56 75
1.770065 -0.702820 -5.553145 33 55 72
1.783550 -0.701299 -5.541126 34 55 74
1.785408 -0.695279 -5.493562 33 50 70
1.787234 -0.689362 -5.446808 33 47 67
1.792812 -0.684989 -5.412262 29 43 61
1.811640 -0.685714 -5.417989 28 42 59
1.826638 -0.684989 -5.412262 34 48 65
1.843552 -0.684989 -5.412262 40 55 73
1.856540 -0.683544 -5.400844 41 57 77
1.873418 -0.683544 -5.400844 40 58 77
1.890295 -0.683544 -5.400844 39 59 77
1.919321 -0.687898 -5.435244 42 63 82
1.934252 -0.687169 -5.429481 42 62 82
1.947090 -0.685714 -5.417989 42 61 82
1.943455 -0.678534 -5.361257 42 60 79
1.918033 -0.663934 -5.245902 38 53 73
1.908999 -0.655207 -5.176947 34 46 68
1.909729 -0.649950 -5.135406 56 64 88
1.906653 -0.643496 -5.084409 125 135 157
1.909270 -0.639053 -5.049310 120 131 155
1.911851 -0.634672 -5.014691 80 91 121
2.004073 -0.659878 -5.213849 98 108 140
2.090622 -0.682824 -5.395153 107 117 150
2.107481 -0.682824 -5.395153 74 84 119
2.055046 -0.660550 -5.219164 75 86 121
2.009891 -0.640950 -5.064293 113 126 159
2.001955 -0.633431 -5.004888 99 112 142
2.009737 -0.630964 -4.985394 108 122 152
2.021380 -0.629738 -4.975705 123 140 171
2.040896 -0.630964 -4.985394 106 125 157
2.237288 -0.686441 -5.423729 123 143 173
2.249471 -0.684989 -5.412262 113 132 160
2.254469 -0.681388 -5.383807 97 113 141
2.271293 -0.681388 -5.383807 115 130 159
2.283316 -0.679958 -5.372508 100 114 146
2.304942 -0.681388 -5.383807 133 146 180
2.309623 -0.677824 -5.355649 127 140 174
2.304663 -0.671503 -5.305699 114 127 161
2.248996 -0.650602 -5.140562 122 135 167
2.249252 -0.646062 -5.104686 104 115 146
2.265204 -0.646062 -5.104686 121 131 163
2.383333 -0.675000 -5.333333 102 111 144
2.400000 -0.675000 -5.333333 46 51 73
2.411642 -0.673597 -5.322245 17 20 32
2.428274 -0.673597 -5.322245 16 17 23
2.447451 -0.674298 -5.327784 18 17 20
2.464100 -0.674298 -5.327784 20 18 20
2.504202 -0.680672 -5.378151 18 16 20
2.521008 -0.680672 -5.378151 17 16 21
2.545838 -0.682824 -5.395153 16 16 22
2.543933 -0.677824 -5.355649 16 16 22
2.560669 -0.677824 -5.355649 15 16 21
2.566667 -0.675000 -5.333333 15 16 21
2.575286 -0.672897 -5.316719 16 16 20
2.557377 -0.663934 -5.245902 16 16 18
2.558045 -0.659878 -5.213849 16 16 18
2.548387 -0.653226 -5.161290 17 16 20
2.595918 -0.661224 -5.224490 19 18 22
2.606925 -0.659878 -5.213849 26 26 29
2.607287 -0.655870 -5.182186 34 34 37
2.615540 -0.653885 -5.166499 41 40 44
2.753960 -0.684266 -5.406547 80 79 80
2.773784 -0.684989 -5.412262 91 89 85
2.776025 -0.681388 -5.383807 94 91 78
2.781152 -0.678534 -5.361257 96 94 71
2.797906 -0.678534 -5.361257 99 96 66
2.820567 -0.679958 -5.372508 98 93 66
2.855333 -0.684266 -5.406547 99 92 70
2.836288 -0.675704 -5.338895 98 90 73
2.876972 -0.681388 -5.383807 98 90 74
4.940754 -1.163375 -9.192101 97 91 74
5.060329 -1.184644 -9.360147 97 94 74
5.590362 -1.301205 -10.281124 96 92 71
5.588822 -1.293413 -10.219561 96 90 71
5.554241 -1.278106 -10.098619 98 92 71
5.531250 -1.265625 -10.000000 97 92 72
5.445507 -1.239006 -9.789675 96 91 72
5.284133 -1.195572 -9.446494 96 92 72
2.906155 -0.653885 -5.166499 95 91 70
2.913481 -0.651911 -5.150906 95 92 68
2.965377 -0.659878 -5.213849 96 92 68
2.981670 -0.659878 -5.213849 97 92 70
2.997963 -0.659878 -5.213849 94 92 73
3.145590 -0.688629 -5.441020 92 91 73
3.172708 -0.690832 -5.458422 94 91 72
2.837736 -0.611321 -4.830189 94 88 70
3.241158 -0.694534 -5.487674 93 87 68
3.216931 -0.685714 -5.417989 94 88 68
3.233862 -0.685714 -5.417989 95 90 70
3.223505 -0.679958 -5.372508 97 91 70
3.236897 -0.679245 -5.366876 96 90 70
3.253669 -0.679245 -5.366876 95 90 70
3.250000 -0.675000 -5.333333 93 89 70
3.243020 -0.670114 -5.294726 90 88 71
3.216326 -0.661224 -5.224490 78 78 65
3.152239 -0.644776 -5.094527 42 45 38
3.146245 -0.640316 -5.059289 34 37 37
-3.275333 -0.679632 -5.240532 47 75 67
-3.262295 -0.680328 -5.245902 47 74 66
-3.262616 -0.683831 -5.272914 48 75 67
-3.216326 -0.677551 -5.224490 47 70 61
-3.145436 -0.665998 -5.135406 44 60 54
-3.089109 -0.657426 -5.069307 33 43 38
-3.052114 -0.652901 -5.034415 19 24 21
-3.030422 -0.651619 -5.024534 18 21 19
-3.000000 -0.648438 -5.000000 21 22 23
-2.853408 -0.619981 -4.780579 27 30 32
-2.833178 -0.618826 -4.771668 29 33 35
-2.784530 -0.611418 -4.714549 23 27 30
-2.754579 -0.608059 -4.688645 20 24 27
-2.722475 -0.604186 -4.658781 21 24 27
-2.740331 -0.611418 -4.714549 22 23 26
-2.725599 -0.611418 -4.714549 24 25 27
-2.710865 -0.611418 -4.714549 26 27 29
-2.686239 -0.609174 -4.697248 27 28 29
-2.652095 -0.604736 -4.663023 26 28 27
-2.588025 -0.593387 -4.575514 26 28 26
-2.823529 -0.650980 -5.019608 29 31 29
-11.595141 -2.688259 -20.728745 31 33 33
-11.530364 -2.688259 -20.728745 34 35 38
-10.850574 -2.544061 -19.616858 32 33 38
-7.757576 -1.829201 -14.104683 27 28 32
-7.124682 -1.689567 -13.027989 25 26 29
-7.065990 -1.685279 -12.994924 26 27 28
-7.025381 -1.685279 -12.994924 26 27 26
-6.967089 -1.681013 -12.962026 22 23 21
-6.926582 -1.681013 -12.962026 16 16 16
-6.886076 -1.681013 -12.962026 13 13 14
-6.760000 -1.660000 -12.800000 14 13 17
-6.703242 -1.655860 -12.768080 15 14 19
-5.280632 -1.312253 -10.118577 14 13 18
-5.097888 -1.274472 -9.827255 14 13 18
-5.067179 -1.274472 -9.827255 14 13 18
-4.950943 -1.252830 -9.660378 14 13 18
-4.829629 -1.229630 -9.481482 13 13 17
-4.653501 -1.192101 -9.192101 14 14 16
-4.735294 -1.220588 -9.411765 14 15 17
-4.705883 -1.220588 -9.411765 15 16 16
-4.542857 -1.185714 -9.142858 17 17 18
-4.044800 -1.062400 -8.192000 18 17 20
-3.806061 -1.006061 -7.757576 18 17 22
-3.681416 -0.979351 -7.551622 20 18 24
-3.604651 -0.965116 -7.441861 23 22 27
-3.540230 -0.954023 -7.356322 23 23 27
-3.428571 -0.929972 -7.170868 22 23 25
-3.331507 -0.909589 -7.013699 23 23 24
-3.242953 -0.891275 -6.872483 28 25 29
-3.174603 -0.878307 -6.772487 33 28 35
-3.088083 -0.860104 -6.632124 38 32 38
-2.923457 -0.819753 -6.320988 41 34 40
-2.864799 -0.808770 -6.236297 40 34 44
-2.787590 -0.792363 -6.109785 40 36 46
-2.707118 -0.774796 -5.974329 40 39 43
-2.639175 -0.760596 -5.864834 39 42 43
-2.573678 -0.746907 -5.759280 44 38 40
-2.510497 -0.733702 -5.657459 74 62 62
-2.444204 -0.719393 -5.547129 72 46 46
-2.385516 -0.707135 -5.452609 83 31 33
-2.333683 -0.696747 -5.372508 95 19 23
-2.312042 -0.695288 -5.361257 105 10 16
-2.259794 -0.684536 -5.278350 111 10 15
-2.218145 -0.676860 -5.219164 116 11 17
-2.199593 -0.676171 -5.213849 132 14 24
-2.224066 -0.688797 -5.311203 155 18 33
-2.098619 -0.654832 -5.049310 170 17 35
-2.034682 -0.639692 -4.932563 177 15 33
-2.013449 -0.637848 -4.918348 181 17 33
-1.990431 -0.635407 -4.899521 183 19 33
-1.975120 -0.635407 -4.899521 183 19 33
-1.939394 -0.628788 -4.848485 180 14 32
-1.895522 -0.619403 -4.776119 177 11 31
-1.870130 -0.615955 -4.749536 179 13 35
-1.846722 -0.613112 -4.727609 181 15 39
-1.987976 -0.665331 -5.130260 184 17 44
-2.000000 -0.674797 -5.203252 181 15 42
-1.936508 -0.658730 -5.079365 172 11 33
-1.914936 -0.656775 -5.064293 171 14 31
-1.796071 -0.621141 -4.789523 172 16 31
-1.762963 -0.614815 -4.740741 181 19 39
-1.748148 -0.614815 -4.740741 181 21 41
-1.741395 -0.617674 -4.762791 180 18 38
-1.726512 -0.617674 -4.762791 174 26 53
-1.710037 -0.617100 -4.758364 137 79 97
-1.678013 -0.610856 -4.710212 97 111 116
-1.933690 -0.710160 -5.475936 33 42 45
-1.916578 -0.710160 -5.475936 18 18 19
-1.881356 -0.703390 -5.423729 18 17 18
-1.833333 -0.691667 -5.333333 18 17 18
-1.801653 -0.685950 -5.289256 18 16 17
-1.796258 -0.690229 -5.322245 17 15 17
-1.783333 -0.691667 -5.333333 17 16 17
-1.766667 -0.691667 -5.333333 17 17 18
-1.750000 -0.691667 -5.333333 19 19 21
-1.724352 -0.688083 -5.305699 29 33 34
-1.697219 -0.683831 -5.272914 47 56 54
-1.680742 -0.683831 -5.272914 43 49 47
-1.664264 -0.683831 -5.272914 23 27 25
-1.611279 -0.668681 -5.156093 19 22 19
-1.559055 -0.653543 -5.039370 22 21 16
-1.543307 -0.653543 -5.039370 21 22 14
-1.583673 -0.677551 -5.224490 24 23 16
-1.573771 -0.680328 -5.245902 28 25 20
-1.524574 -0.665998 -5.135406 35 32 28
-1.487636 -0.656775 -5.064293 51 49 44
-1.461690 -0.652259 -5.029469 58 60 53
-1.447394 -0.652901 -5.034415 53 60 50
-1.428852 -0.651619 -5.024534 49 61 48
-1.409002 -0.649706 -5.009785 47 60 48
-1.390625 -0.648438 -5.000000 48 62 51
-1.372320 -0.647173 -4.990253 49 62 54
-1.354086 -0.645914 -4.980545 43 60 53
-1.332043 -0.642788 -4.956438 40 62 56
-1.310212 -0.639692 -4.932563 47 71 67
-1.293551 -0.639076 -4.927815 44 68 68
-1.278152 -0.639076 -4.927815 46 68 70
-1.251908 -0.633588 -4.885496 48 69 72
-1.207829 -0.618826 -4.771668 53 74 77
-1.176471 -0.610294 -4.705883 54 78 79
-1.147005 -0.602541 -4.646098 59 86 84
-1.131460 -0.601995 -4.641886 54 82 78
-1.101968 -0.593918 -4.579607 51 81 75
-1.074205 -0.586572 -4.522968 54 86 79
-1.060071 -0.586572 -4.522968 55 88 81
-1.103448 -0.618826 -4.771668 54 86 81
-1.093633 -0.621723 -4.794007 56 88 84
-1.119534 -0.645287 -4.975705 58 91 90
-1.109375 -0.648438 -5.000000 64 98 97
-1.135903 -0.673428 -5.192698 66 100 99
-1.115152 -0.670707 -5.171717 70 104 102
-1.081511 -0.660040 -5.089463 74 108 107
-1.061386 -0.657426 -5.069307 72 106 106
-1.043478 -0.656126 -5.059289 74 108 110
-1.015625 -0.648438 -5.000000 78 113 116
-1.003922 -0.650980 -5.019608 89 123 127
-0.989205 -0.651619 -5.024534 88 122 126
-0.982178 -0.657426 -5.069307 87 124 126
-0.957802 -0.651619 -5.024534 88 128 128
-0.939335 -0.649706 -5.009785 91 133 131
-0.921875 -0.648438 -5.000000 94 136 134
-0.906250 -0.648438 -5.000000 91 132 130
-0.879460 -0.640309 -4.937319 91 131 130
-0.872444 -0.646543 -4.985394 91 132 131
-0.848602 -0.640309 -4.937319 92 134 132
-0.821293 -0.631179 -4.866920 93 135 133
-0.791045 -0.619403 -4.776119 90 131 129
-0.824579 -0.658077 -5.074331 92 134 132
-0.807921 -0.657426 -5.069307 94 136 135
-0.791296 -0.656775 -5.064293 88 132 131
-0.765625 -0.648438 -5.000000 87 131 130
-0.737752 -0.637848 -4.918348 88 134 135
-0.709434 -0.626415 -4.830189 88 132 137
-0.692380 -0.624647 -4.816557 92 132 138
-0.678605 -0.625825 -4.825636 94 129 135
-0.707538 -0.667337 -5.145729 96 125 131
-2.940171 -2.837607 -21.880342 95 119 124
-2.871795 -2.837607 -21.880342 89 108 115
-0.653386 -0.661355 -5.099602 106 121 132
-0.631787 -0.655479 -5.054294 148 156 168
-0.609971 -0.649071 -5.004888 177 181 193
-0.593750 -0.648438 -5.000000 192 193 207
-0.578125 -0.648438 -5.000000 207 205 219
-0.562500 -0.648438 -5.000000 223 221 234
-0.543162 -0.644035 -4.966053 228 225 237
-0.525097 -0.640927 -4.942085 222 218 228
-0.522255 -0.656775 -5.064293 232 227 235
-0.738817 -0.958153 -7.388167 246 244 249
-0.715729 -0.958153 -7.388167 248 246 250
-0.907372 -1.255198 -9.678639 249 246 250
-0.867290 -1.241122 -9.570093 247 240 243
-0.837383 -1.241122 -9.570093 217 205 210
-0.786885 -1.209472 -9.326047 232 222 227
-0.756364 -1.207273 -9.309091 253 248 252
-0.718133 -1.192101 -9.192101 253 251 254
-0.688172 -1.189964 -9.175628 250 251 254
-0.654804 -1.181495 -9.110320 252 252 253
-0.376874 -0.710921 -5.481799 253 252 250
-0.355932 -0.703390 -5.423729 253 249 250
-0.338983 -0.703390 -5.423729 238 233 239
-0.320675 -0.700422 -5.400844 158 153 163
-0.300626 -0.693111 -5.344468 61 60 66
-0.281574 -0.687371 -5.300207 45 49 47
-0.262295 -0.680328 -5.245902 39 43 42
-0.242424 -0.670707 -5.171717 34 36 38
-0.222664 -0.660040 -5.089463 31 30 33
-0.204122 -0.651619 -5.024534 27 27 30
-0.186770 -0.645914 -4.980545 24 26 30
-0.170213 -0.642166 -4.951644 21 24 28
-0.152818 -0.634193 -4.890162 20 22 28
-0.141454 -0.652259 -5.029469 20 20 27
-0.130879 -0.678937 -5.235174 20 19 26
-0.115345 -0.683831 -5.272914 20 20 26
-0.098664 -0.682425 -5.262076 24 24 30
-0.082220 -0.682425 -5.262076 48 49 54
-0.121212 -1.257576 -9.696970 53 54 59
-0.090909 -1.257576 -9.696970 46 47 52
-0.059925 -1.243446 -9.588015 41 44 48
-0.029412 -1.220588 -9.411765 39 42 46
0.000000 -1.189964 -9.175628 38 41 46
0.026359 -1.093904 -8.434926 38 41 46
0.052718 -1.093904 -8.434926 39 42 48
0.079077 -1.093904 -8.434926 39 42 49
0.065708 -0.681725 -5.256673 39 43 50
0.079444 -0.659384 -5.084409 40 45 52
0.094862 -0.656126 -5.059289 42 47 54
0.109482 -0.649071 -5.004888 43 48 55
0.125122 -0.649071 -5.004888 45 49 59
0.143141 -0.660040 -5.089463 47 51 62
0.165975 -0.688797 -5.311203 48 52 63
0.182573 -0.688797 -5.311203 48 52 63
0.199170 -0.688797 -5.311203 48 52 63
0.214433 -0.684536 -5.278350 44 48 59
0.233333 -0.691667 -5.333333 38 42 52
0.293040 -0.810745 -6.251526 35 39 48
0.257805 -0.668681 -5.156093 36 40 49
0.271186 -0.662014 -5.104686 37 41 50
0.285714 -0.658730 -5.079365 38 42 51
0.301288 -0.658077 -5.074331 39 43 52
0.317146 -0.658077 -5.074331 39 43 52
0.332673 -0.657426 -5.069307 38 42 51
0.350598 -0.661355 -5.099602 38 41 51
0.367265 -0.662675 -5.109780 38 40 52
0.385155 -0.665998 -5.135406 39 42 52
0.398406 -0.661355 -5.099602 39 42 51
0.413108 -0.659384 -5.084409 39 42 49
0.426035 -0.654832 -5.049310 39 42 48
0.440511 -0.652901 -5.034415 38 41 46
0.453125 -0.648438 -5.000000 37 40 45
0.467381 -0.646543 -4.985394 38 41 46
0.477382 -0.639076 -4.927815 40 43 48
0.489016 -0.634193 -4.890162 41 44 49
0.495310 -0.622889 -4.803002 42 43 48
0.506518 -0.618250 -4.767225 44 44 47
0.513761 -0.609174 -4.697248 43 44 46
0.525547 -0.605839 -4.671533 40 42 44
0.618600 -0.693835 -5.350052 38 36 37
0.633994 -0.692388 -5.338895 88 78 77
0.650000 -0.691667 -5.333333 125 105 102
0.663900 -0.688797 -5.311203 116 90 84
0.672821 -0.681026 -5.251282 105 80 71
0.686415 -0.678243 -5.229826 92 71 61
0.727273 -0.701903 -5.412262 79 63 53
0.744186 -0.701903 -5.412262 67 56 47
0.757098 -0.698212 -5.383807 51 44 38
0.764278 -0.689512 -5.316719 31 29 25
0.772867 -0.682425 -5.262076 21 22 21
0.786080 -0.679632 -5.240532 19 19 22
0.788732 -0.668008 -5.150906 19 18 23
0.791296 -0.656775 -5.064293 20 19 24
0.796875 -0.648438 -5.000000 21 20 26
0.812500 -0.648438 -5.000000 21 21 28
0.828125 -0.648438 -5.000000 24 24 33
0.843750 -0.648438 -5.000000 29 30 40
0.819367 -0.618250 -4.767225 43 44 55
0.853333 -0.632381 -4.876191 86 85 93
0.868571 -0.632381 -4.876191 104 103 109
0.877127 -0.627599 -4.839320 106 105 111
0.855072 -0.601449 -4.637681 106 105 111
0.866426 -0.599278 -4.620939 107 105 110
0.926876 -0.630579 -4.862298 107 105 110
1.018481 -0.681725 -5.256673 107 107 109
1.037037 -0.683128 -5.267490 108 108 110
1.066667 -0.691667 -5.333333 109 108 112
1.125541 -0.718615 -5.541126 113 112 119
1.142857 -0.718615 -5.541126 122 120 130
1.141640 -0.707135 -5.452609 127 126 136
1.144059 -0.698212 -5.383807 129 127 136
1.138144 -0.684536 -5.278350 130 127 134
1.147541 -0.680328 -5.245902 132 129 135
1.146317 -0.670030 -5.166499 133 129 135
1.145129 -0.660040 -5.089463 133 128 135
1.157582 -0.658077 -5.074331 132 127 133
1.148400 -0.644035 -4.966053 132 125 132
1.153846 -0.638462 -4.923077 124 118 124
1.154796 -0.630579 -4.862298 81 76 81
1.149254 -0.619403 -4.776119 32 29 34
1.163094 -0.618826 -4.771668 24 23 28
1.274194 -0.669355 -5.161290 28 28 33
1.311475 -0.680328 -5.245902 91 91 97
1.372881 -0.703390 -5.423729 130 130 136
1.389830 -0.703390 -5.423729 99 98 105
1.406780 -0.703390 -5.423729 142 141 148
1.413249 -0.698212 -5.383807 210 208 215
1.430074 -0.698212 -5.383807 210 208 214
1.446898 -0.698212 -5.383807 129 129 135
1.463722 -0.698212 -5.383807 96 96 102
1.462098 -0.689512 -5.316719 115 117 128
1.471074 -0.685950 -5.289256 101 104 121
1.478439 -0.681725 -5.256673 85 90 111
1.445879 -0.659384 -5.084409 98 104 127
1.461768 -0.659384 -5.084409 88 95 114
1.461690 -0.652259 -5.029469 34 41 57
1.477407 -0.652259 -5.029469 20 26 39
1.491658 -0.651619 -5.024534 23 27 39
1.507360 -0.651619 -5.024534 24 28 39
1.515625 -0.648438 -5.000000 24 30 44
1.633333 -0.691667 -5.333333 30 39 57
1.636364 -0.685950 -5.289256 34 46 66
1.652893 -0.685950 -5.289256 33 48 66
1.604767 -0.659384 -5.084409 37 54 69
1.766234 -0.718615 -5.541126 36 53 67
1.772043 -0.713978 -5.505376 32 48 65
1.775880 -0.708645 -5.464248 32 47 65
1.775899 -0.701903 -5.412262 32 45 62
1.783386 -0.698212 -5.383807 31 44 60
1.790795 -0.694561 -5.355649 29 41 56
1.800000 -0.691667 -5.333333 29 41 55
1.820459 -0.693111 -5.344468 32 45 59
1.831426 -0.690947 -5.327784 34 48 64
1.846154 -0.690229 -5.322245 35 50 66
1.862786 -0.690229 -5.322245 35 52 66
1.879418 -0.690229 -5.322245 38 56 71
1.909948 -0.695288 -5.361257 41 58 77
1.896907 -0.684536 -5.278350 43 59 81
1.882353 -0.673428 -5.192698 42 56 78
1.892821 -0.671385 -5.176947 40 53 74
1.893681 -0.665998 -5.135406 37 49 69
1.888889 -0.658730 -5.079365 32 42 62
1.893491 -0.654832 -5.049310 36 46 64
1.898039 -0.650980 -5.019608 55 65 84
1.904390 -0.647805 -4.995122 112 122 146
1.920000 -0.647805 -4.995122 127 136 165
2.000000 -0.669355 -5.161290 117 127 159
2.036660 -0.676171 -5.213849 104 114 147
2.011976 -0.662675 -5.109780 92 103 136
2.009891 -0.656775 -5.064293 97 110 142
2.009814 -0.651619 -5.024534 104 117 145
2.017595 -0.649071 -5.004888 75 89 116
2.027290 -0.647173 -4.990253 104 119 150
2.048876 -0.649071 -5.004888 138 156 186
2.072620 -0.651619 -5.024534 113 132 161
2.237645 -0.698212 -5.383807 115 133 160
2.254469 -0.698212 -5.383807 80 96 124
2.254697 -0.693111 -5.344468 114 128 157
2.259605 -0.689512 -5.316719 150 164 194
2.271502 -0.688083 -5.305699 113 127 161
2.259979 -0.679632 -5.240532 103 117 151
2.232932 -0.666667 -5.140562 96 110 143
2.233300 -0.662014 -5.104686 138 151 180
2.240318 -0.659384 -5.084409 119 131 159
2.251734 -0.658077 -5.074331 88 98 127
2.265347 -0.657426 -5.069307 97 105 135
2.360656 -0.680328 -5.245902 66 70 91
2.377049 -0.680328 -5.245902 18 20 32
2.393443 -0.680328 -5.245902 18 18 25
2.409836 -0.680328 -5.245902 19 19 22
2.428718 -0.681026 -5.251282 21 19 22
2.447639 -0.681725 -5.256673 18 16 21
2.505219 -0.693111 -5.344468 18 17 22
2.521921 -0.693111 -5.344468 17 16 22
2.538622 -0.693111 -5.344468 16 16 22
2.544698 -0.690229 -5.322245 17 16 22
2.550725 -0.687371 -5.300207 17 16 21
2.540984 -0.680328 -5.245902 17 17 20
2.518668 -0.670030 -5.166499 17 17 19
2.512000 -0.664000 -5.120000 17 17 19
2.528000 -0.664000 -5.120000 17 17 19
2.587996 -0.675483 -5.208545 19 19 22
2.604273 -0.675483 -5.208545 23 23 27
2.591549 -0.668008 -5.150906 32 31 36
2.576541 -0.660040 -5.089463 33 32 37
2.592445 -0.660040 -5.089463 65 65 67
2.727651 -0.690229 -5.322245 86 84 80
2.744283 -0.690229 -5.322245 92 89 77
2.758048 -0.689512 -5.316719 97 95 73
2.763185 -0.686660 -5.294726 101 97 70
2.765432 -0.683128 -5.267490 100 95 72
2.764826 -0.678937 -5.235174 102 95 77
2.775510 -0.677551 -5.224490 101 94 77
2.791837 -0.677551 -5.224490 100 94 76
2.808163 -0.677551 -5.224490 100 95 75
4.969480 -1.192101 -9.192101 99 96 75
4.998205 -1.192101 -9.192101 98 93 73
5.511811 -1.307087 -10.078740 98 91 72
5.500000 -1.296875 -10.000000 100 93 74
5.414914 -1.269598 -9.789675 100 94 75
5.254612 -1.225092 -9.446494 99 93 75
2.881288 -0.668008 -5.150906 97 92 72
2.874252 -0.662675 -5.109780 96 91 69
2.887338 -0.662014 -5.104686 98 94 70
2.938446 -0.670030 -5.166499 99 94 70
2.981670 -0.676171 -5.213849 98 93 72
2.970737 -0.670030 -5.166499 96 93 74
2.968907 -0.665998 -5.135406 94 92 74
2.949455 -0.658077 -5.074331 95 91 73
2.921875 -0.648438 -5.000000 96 91 72
2.895092 -0.639076 -4.927815 98 93 73
2.985193 -0.655479 -5.054294 97 90 71
3.027889 -0.661355 -5.099602 96 91 71
3.166839 -0.688083 -5.305699 98 93 72
3.154004 -0.681725 -5.256673 98 92 69
3.160696 -0.679632 -5.240532 97 91 69
3.180328 -0.680328 -5.245902 97 91 71
3.196721 -0.680328 -5.245902 95 90 71
3.200000 -0.677551 -5.224490 92 89 72
3.206511 -0.675483 -5.208545 74 74 61
3.158525 -0.662014 -5.104686 38 40 34
3.161867 -0.659384 -5.084409 32 35 35
-3.232487 -0.690355 -5.197969 40 70 67
-3.226069 -0.692464 -5.213849 36 64 61
-3.200000 -0.690355 -5.197969 35 59 56
-3.114201 -0.675273 -5.084409 37 54 52
-3.073892 -0.669951 -5.044335 30 39 40
-3.043137 -0.666667 -5.019608 22 26 28
-3.021526 -0.665362 -5.009785 21 23 25
-3.000000 -0.664062 -5.000000 22 24 26
-2.850746 -0.634328 -4.776119 21 24 25
-2.820037 -0.630798 -4.749536 21 24 26
-2.805195 -0.630798 -4.749536 19 22 24
-23.500000 -5.312500 -40.000000 19 22 24
-23.375000 -5.312500 -40.000000 21 23 25
-2.745388 -0.627306 -4.723247 22 23 25
-2.725599 -0.626151 -4.714549 23 23 25
-2.710865 -0.626151 -4.714549 25 25 27
-2.686239 -0.623853 -4.697248 27 27 28
-2.652095 -0.619308 -4.663023 27 28 28
-2.588025 -0.607685 -4.575514 27 29 27
-2.823529 -0.666667 -5.019608 28 30 29
-9.150160 -2.172524 -16.357828 32 33 33
-9.307190 -2.222222 -16.732027 33 33 37
-9.254902 -2.222222 -16.732027 32 31 37
-8.911392 -2.151899 -16.202532 31 31 36
-7.407407 -1.798942 -13.544973 26 26 29
-7.365079 -1.798942 -13.544973 25 26 27
-7.361702 -1.808511 -13.617022 38 38 37
-7.319149 -1.808511 -13.617022 41 41 39
-7.276596 -1.808511 -13.617022 31 31 30
-7.046632 -1.761658 -13.264249 17 17 18
-6.987080 -1.757106 -13.229974 15 15 17
-6.703242 -1.695761 -12.768080 16 15 19
-5.280632 -1.343874 -10.118577 14 13 18
-5.097888 -1.305182 -9.827255 15 14 19
-5.067179 -1.305182 -9.827255 17 16 21
-4.859259 -1.259259 -9.481482 17 16 21
-4.640569 -1.209964 -9.110320 17 16 21
-4.523560 -1.186736 -8.935428 17 17 20
-4.403419 -1.162393 -8.752137 16 16 18
-4.259567 -1.131448 -8.519135 14 15 16
-4.143322 -1.107492 -8.338762 14 14 16
-3.950000 -1.062500 -8.000000 14 13 18
-3.794562 -1.027190 -7.734139 15 13 19
-3.681416 -1.002950 -7.551622 16 14 21
-3.583815 -0.982659 -7.398844 17 16 21
-3.450980 -0.952381 -7.170868 17 17 20
-3.353425 -0.931507 -7.013699 17 18 20
-3.264430 -0.912752 -6.872483 19 18 20
-3.195767 -0.899471 -6.772487 22 20 22
-3.125000 -0.885417 -6.666667 25 23 26
-3.036943 -0.866242 -6.522293 29 27 29
-2.934325 -0.842627 -6.344486 34 31 33
-2.864799 -0.828258 -6.236297 35 33 39
-2.787590 -0.811456 -6.109785 35 35 44
-2.707118 -0.793466 -5.974329 35 37 46
-2.639175 -0.778923 -5.864834 34 39 44
-2.608894 -0.775371 -5.838084 38 39 42
-2.535714 -0.758929 -5.714286 52 50 52
-2.444204 -0.736728 -5.547129 54 47 46
-2.385516 -0.724175 -5.452609 55 34 31
-2.331237 -0.712788 -5.366876 75 26 25
-2.278638 -0.701754 -5.283798 101 16 20
-2.241309 -0.695297 -5.235174 112 12 16
-2.202429 -0.688259 -5.182186 113 13 16
-2.173038 -0.684105 -5.150906 126 14 21
-2.126984 -0.674603 -5.079365 150 20 32
-2.078125 -0.664062 -5.000000 165 17 34
-2.038610 -0.656371 -4.942085 172 15 32
-2.019268 -0.655106 -4.932563 172 12 27
-1.990431 -0.650718 -4.899521 174 12 25
-2.005831 -0.660836 -4.975705 178 14 25
-1.959809 -0.650718 -4.899521 181 15 28
-1.897292 -0.634921 -4.780579 178 12 28
-1.847846 -0.623281 -4.692942 177 12 30
-1.858736 -0.631970 -4.758364 179 13 36
-1.976096 -0.677291 -5.099602 183 17 44
-1.960159 -0.677291 -5.099602 182 17 46
-1.930762 -0.672601 -5.064293 174 13 37
-1.898039 -0.666667 -5.019608 170 14 33
-1.875000 -0.664062 -5.000000 169 15 31
-1.758079 -0.627886 -4.727609 177 18 37
-1.743306 -0.627886 -4.727609 178 17 38
-1.741395 -0.632558 -4.762791 179 17 40
-1.764259 -0.646388 -4.866920 166 32 58
-1.809243 -0.668633 -5.034415 114 86 95
-2.116009 -0.788863 -5.939675 84 115 114
-2.097448 -0.788863 -5.939675 43 55 57
-2.078886 -0.788863 -5.939675 21 23 24
-2.060325 -0.788863 -5.939675 22 22 22
-1.833333 -0.708333 -5.333333 21 21 22
-1.801653 -0.702479 -5.289256 21 20 22
-1.796258 -0.706861 -5.322245 20 18 21
-1.779626 -0.706861 -5.322245 19 17 20
-1.759336 -0.705394 -5.311203 18 17 19
-1.719550 -0.696008 -5.240532 25 23 26
-1.703173 -0.696008 -5.240532 54 47 53
-1.686796 -0.696008 -5.240532 89 87 91
-1.663609 -0.693170 -5.219164 71 74 76
-1.647299 -0.693170 -5.219164 29 32 30
-1.574803 -0.669291 -5.039370 23 22 16
-1.546875 -0.664062 -5.000000 29 22 17
-1.543307 -0.669291 -5.039370 40 29 22
-1.559799 -0.683417 -5.145729 65 50 36
-1.543719 -0.683417 -5.145729 102 75 52
-1.503462 -0.672601 -5.064293 137 110 86
-1.475957 -0.667321 -5.024534 135 119 98
-1.460255 -0.667321 -5.024534 71 68 49
-1.444553 -0.667321 -5.024534 51 58 40
-1.428852 -0.667321 -5.024534 48 60 44
-1.409002 -0.665362 -5.009785 49 61 47
-1.390625 -0.664062 -5.000000 50 60 50
-1.370983 -0.662123 -4.985394 48 58 48
-1.352770 -0.660836 -4.975705 45 58 49
-1.337221 -0.660836 -4.975705 42 60 52
-1.322957 -0.661479 -4.980545 42 63 57
-1.296046 -0.655738 -4.937319 43 64 59
-1.278152 -0.654475 -4.927815 44 62 58
-1.242424 -0.643939 -4.848485 46 62 59
-1.201112 -0.630213 -4.745134 50 66 64
-1.165756 -0.619308 -4.663023 53 73 70
-1.144928 -0.615942 -4.637681 49 72 68
-1.124324 -0.612613 -4.612613 52 76 71
-1.101968 -0.608229 -4.579607 51 78 71
-1.074205 -0.600707 -4.522968 50 78 71
-1.171875 -0.664062 -5.000000 48 77 71
-1.156250 -0.664062 -5.000000 47 76 71
-1.140625 -0.664062 -5.000000 46 75 70
-1.125000 -0.664062 -5.000000 48 77 74
-1.109375 -0.664062 -5.000000 51 79 77
-1.135903 -0.689655 -5.192698 53 82 78
-1.115152 -0.686869 -5.171717 55 85 81
-1.077228 -0.673267 -5.069307 61 91 88
-1.047898 -0.664712 -5.004888 62 92 90
-1.029240 -0.662768 -4.990253 62 92 91
-1.013645 -0.662768 -4.990253 64 95 95
-1.003922 -0.666667 -5.019608 66 98 99
-0.988235 -0.666667 -5.019608 68 102 103
-0.980237 -0.671937 -5.059289 70 107 106
-0.957802 -0.667321 -5.024534 70 108 106
-0.940255 -0.666014 -5.014691 73 113 110
-0.921875 -0.664062 -5.000000 79 120 117
-0.905366 -0.663415 -4.995122 77 117 114
-0.888023 -0.662123 -4.985394 81 121 118
-0.872444 -0.662123 -4.985394 85 125 122
-0.856865 -0.662123 -4.985394 81 121 119
-0.821293 -0.646388 -4.866920 83 123 122
-0.791045 -0.634328 -4.776119 83 123 122
-0.764706 -0.625000 -4.705883 89 129 128
-0.807122 -0.672601 -5.064293 88 129 128
-0.791296 -0.672601 -5.064293 84 125 125
-0.767875 -0.666014 -5.014691 86 128 128
-0.750733 -0.664712 -5.004888 92 134 137
-0.732943 -0.662768 -4.990253 86 127 132
-0.718750 -0.664062 -5.000000 84 123 129
-0.701071 -0.662123 -4.985394 86 122 129
-0.685492 -0.662123 -4.985394 87 120 125
-0.683897 -0.675944 -5.089463 84 115 119
-0.669323 -0.677291 -5.099602 80 109 115
-0.647581 -0.671273 -5.054294 85 110 118
-0.625611 -0.664712 -5.004888 105 123 132
-0.608187 -0.662768 -4.990253 140 151 161
-0.592593 -0.662768 -4.990253 173 177 191
-0.578125 -0.664062 -5.000000 188 187 203
-0.560311 -0.661479 -4.980545 203 201 216
-0.543162 -0.659554 -4.966053 203 202 216
-0.525097 -0.656371 -4.942085 217 217 229
-0.521739 -0.671937 -5.059289 233 233 243
-0.506429 -0.672601 -5.064293 230 232 239
-0.491089 -0.673267 -5.069307 217 222 227
-0.473840 -0.671273 -5.054294 214 221 227
-0.460317 -0.674603 -5.079365 210 216 222
-0.810127 -1.229656 -9.258590 203 207 214
-0.781193 -1.229656 -9.258590 215 217 224
-0.703892 -1.150592 -8.663282 226 228 234
-0.676819 -1.150592 -8.663282 224 227 232
-0.683274 -1.209964 -9.110320 226 228 235
-0.659498 -1.218638 -9.175628 229 230 236
-0.626335 -1.209964 -9.110320 237 238 242
-0.355932 -0.720339 -5.423729 241 239 239
-0.338983 -0.720339 -5.423729 238 231 230
-0.318658 -0.712788 -5.366876 198 189 187
-0.300626 -0.709812 -5.344468 72 67 65
-0.278689 -0.696721 -5.245902 45 46 40
-0.260163 -0.691057 -5.203252 38 40 36
-0.238806 -0.676617 -5.094527 33 33 31
-0.222002 -0.673935 -5.074331 29 29 26
-0.203922 -0.666667 -5.019608 25 25 23
-0.186952 -0.662123 -4.985394 21 23 22
-0.171206 -0.661479 -4.980545 19 21 21
-0.155642 -0.661479 -4.980545 20 19 22
-0.141454 -0.667976 -5.029469 22 19 24
-0.125737 -0.667976 -5.029469 22 20 26
-0.114402 -0.694586 -5.229826 22 21 27
-0.098059 -0.694586 -5.229826 28 27 33
-0.081716 -0.694586 -5.229826 48 47 53
-0.065440 -0.695297 -5.235174 51 51 56
-0.089888 -1.273408 -9.588015 46 46 51
-0.058824 -1.250000 -9.411765 41 44 47
-0.028725 -1.220826 -9.192101 39 43 46
0.000000 -1.137124 -8.561872 38 41 45
0.026359 -1.120264 -8.434926 38 42 46
0.052718 -1.120264 -8.434926 39 42 47
0.077670 -1.100324 -8.284790 39 42 49
0.097859 -1.039755 -7.828746 40 44 51
0.079681 -0.677291 -5.099602 41 45 52
0.094862 -0.671937 -5.059289 42 47 53
0.109696 -0.666014 -5.014691 42 47 54
0.125122 -0.664712 -5.004888 43 47 57
0.140762 -0.664712 -5.004888 45 48 60
0.162272 -0.689655 -5.192698 45 49 59
0.180884 -0.698869 -5.262076 42 45 56
0.199170 -0.705394 -5.311203 39 42 53
0.214433 -0.701031 -5.278350 35 39 49
0.273504 -0.830281 -6.251526 35 38 48
0.293040 -0.830281 -6.251526 36 40 49
0.312195 -0.829268 -6.243902 38 42 51
0.328106 -0.820265 -6.176116 39 43 52
0.287139 -0.677966 -5.104686 39 43 52
0.301288 -0.673935 -5.074331 39 44 51
0.315582 -0.670611 -5.049310 40 43 51
0.330383 -0.668633 -5.034415 39 42 50
0.348515 -0.673267 -5.069307 38 41 50
0.365079 -0.674603 -5.079365 38 41 50
0.385155 -0.682046 -5.135406 38 41 50
0.399202 -0.678643 -5.109780 38 41 50
0.413108 -0.675273 -5.084409 38 41 49
0.425616 -0.669951 -5.044335 39 42 48
0.438785 -0.666014 -5.014691 38 41 47
0.453125 -0.664062 -5.000000 39 42 47
0.467836 -0.662768 -4.990253 40 43 48
0.480620 -0.658915 -4.961240 41 44 49
0.492782 -0.654475 -4.927815 41 44 50
0.500949 -0.645161 -4.857685 43 45 51
0.506990 -0.633737 -4.771668 43 44 49
0.513761 -0.623853 -4.697248 40 41 45
0.525547 -0.620438 -4.671533 38 39 41
0.617310 -0.709072 -5.338895 44 43 43
0.633994 -0.709072 -5.338895 73 65 64
0.650000 -0.708333 -5.333333 83 69 67
0.663900 -0.705394 -5.311203 78 62 60
0.671443 -0.696008 -5.240532 72 57 53
0.685714 -0.693878 -5.224490 64 50 45
0.702758 -0.694586 -5.229826 58 46 39
0.740273 -0.715037 -5.383807 52 44 37
0.757098 -0.715037 -5.383807 46 42 37
0.764278 -0.706127 -5.316719 39 39 37
0.769703 -0.696008 -5.240532 28 30 30
0.777328 -0.688259 -5.182186 20 21 23
0.784785 -0.680681 -5.125125 19 18 22
0.791296 -0.672601 -5.064293 20 19 24
0.796875 -0.664062 -5.000000 20 19 25
0.812500 -0.664062 -5.000000 20 20 26
0.828125 -0.664062 -5.000000 22 22 30
0.851232 -0.669951 -5.044335 29 29 38
0.856865 -0.662123 -4.985394 51 51 60
0.863198 -0.655106 -4.932563 89 89 96
0.862819 -0.643330 -4.843898 99 98 104
0.850596 -0.623281 -4.692942 100 99 104
0.854299 -0.615385 -4.633484 101 100 105
0.857909 -0.607685 -4.575514 104 102 107
0.871429 -0.607143 -4.571429 104 103 107
